ply
format ascii 1.0
element vertex 400
property float x
property float y
property float z
end_header
0.796649 0.176139 -0.327510
0.839474 0.103627 -0.283126
-0.340615 -0.020785 0.038782
-0.365029 0.006283 0.139294
-0.302573 0.009000 0.134317
-0.333700 0.093530 -0.030535
-0.354344 0.151780 0.021514
0.886377 -0.105721 -0.130428
0.805145 -0.065203 -0.092028
-0.298291 -0.119931 0.095339
-0.370971 0.109711 0.090004
-0.357630 0.157824 0.129702
-0.355078 0.218239 0.107961
-0.359531 0.068290 0.145633
-0.304419 0.066690 0.079854
0.805741 -0.352294 -0.197606
0.796854 -0.246213 -0.143518
0.909879 -0.137671 -0.409297
0.884508 -0.295426 -0.235876
-0.329258 -0.080006 0.057167
-0.306948 -0.156964 0.039133
-0.295379 -0.208632 0.010304
-0.276418 -0.044700 0.114732
0.803600 -0.145304 -0.107149
-0.316611 0.034958 0.026116
0.959561 -0.226402 -0.440347
0.812456 -0.052419 -0.327779
-0.319821 -0.081878 0.140653
-0.291108 -0.180359 0.105714
0.770832 -0.212614 -0.094546
0.867639 -0.027632 -0.367192
-0.360998 0.120627 0.180129
0.800274 -0.283019 -0.244859
-0.336745 -0.034449 0.100258
-0.329428 0.261351 0.002420
0.831187 -0.311684 -0.300139
0.816855 -0.056803 -0.197719
-0.292329 0.001051 0.072940
0.897983 -0.184314 -0.316010
0.853083 0.044605 -0.353984
0.809812 -0.079323 -0.268788
0.897348 -0.069188 -0.229055
0.813339 0.042131 -0.168137
-0.289409 0.009541 -0.027583
0.863672 -0.137154 -0.270903
0.823653 -0.293441 -0.176975
-0.237082 -0.221893 0.003518
-0.316375 0.110536 0.128763
-0.333094 0.155830 -0.037976
0.809254 0.008127 -0.304942
0.869271 -0.026784 -0.294809
-0.292108 -0.042571 0.012092
0.820560 0.053958 -0.280461
-0.339737 0.092288 0.031580
-0.320699 0.149337 0.079541
-0.255761 -0.311052 0.057454
-0.254663 -0.159532 -0.004926
0.814238 -0.379011 -0.297341
-0.352556 0.025113 0.075517
0.733725 -0.263625 -0.096106
-0.254557 -0.129809 0.053916
0.860573 -0.161583 -0.204061
-0.187277 -0.033740 -0.094524
-0.384132 0.170306 0.073833
-0.022278 -0.016616 -0.470338
-0.416989 0.068124 0.119569
-0.410610 0.188671 0.188375
0.924115 -0.282019 -0.356660
-0.330956 0.206054 0.048604
-0.620472 0.181699 0.262994
-0.720731 0.407240 0.187513
0.821621 0.084524 -0.223016
0.831803 -0.227851 -0.204466
0.777507 -0.182574 -0.184196
0.718345 -0.239673 -0.039843
1.008681 -0.272736 -0.769023
-0.578361 0.247765 0.193523
0.737725 -0.234826 -0.152803
0.770528 -0.263573 -0.195320
0.773071 -0.429905 -0.192850
0.846399 0.005892 -0.227746
-0.868891 0.409790 0.385015
-0.410718 0.266869 0.020781
-0.501221 0.250223 0.156429
0.576957 -0.213567 0.029538
0.768985 -0.103697 -0.161271
-0.343868 0.275477 -0.081147
-0.641515 0.345250 0.076986
0.765678 -0.126329 -0.233798
0.698986 0.043786 -0.118090
-0.232431 -0.085895 0.135137
-0.398511 0.060386 0.059683
-0.611517 0.284116 0.100471
-0.264976 -0.202123 0.158304
-0.673342 0.403920 0.051369
-0.852008 0.315352 0.378099
-0.539182 0.272977 0.093853
0.585691 0.216221 -0.268648
-0.759212 0.273826 0.292148
0.608266 -0.154516 -0.010353
0.583674 -0.404587 -0.006878
0.657781 0.016929 -0.323004
0.893153 -0.215258 -0.165061
0.892038 -0.090482 -0.314453
-0.343428 -0.192831 0.165035
-0.727567 0.353740 0.251135
0.711241 -0.408706 -0.086942
-0.682518 0.211463 0.305293
1.007661 -0.330263 -0.575212
-0.483069 0.116930 0.199362
-0.256694 -0.066808 0.058758
0.920608 -0.151004 -0.547851
0.517480 -0.311765 0.065612
0.522640 -0.083240 0.072462
0.744452 -0.187707 -0.304625
0.609676 -0.057050 -0.209389
-0.715800 0.260125 0.357566
-0.821039 0.503408 0.250780
-0.477545 0.273897 0.053671
0.634096 -0.274262 -0.117967
0.419596 -0.204470 0.157722
0.445470 -0.145975 0.101752
0.554458 -0.078873 -0.003655
0.433080 0.060905 -0.056802
-0.548800 0.151167 0.242519
-0.238623 -0.005629 0.011508
0.621101 -0.041148 0.060731
0.486581 -0.161861 0.032849
0.475961 0.102414 -0.216817
0.751946 -0.304734 -0.038421
0.376260 -0.142851 0.038695
0.966073 -0.142538 -0.238252
0.658138 0.176031 -0.311463
-0.381247 0.072380 -0.076688
0.502969 0.063243 -0.282958
-0.150957 0.017698 0.083745
0.720682 0.090968 -0.279363
-0.640819 0.276100 0.246030
0.338422 -0.060521 0.039273
-0.546011 0.158412 0.163182
-0.608520 0.088377 0.378203
0.881664 -0.186868 -0.076386
-0.245118 -0.087270 -0.029310
0.796916 -0.015826 -0.389842
-0.639941 0.286962 0.027892
0.809977 -0.175564 -0.248411
0.733350 0.060484 -0.381811
0.152356 0.004306 0.106419
0.523015 0.149799 -0.309050
-0.148696 0.040215 -0.002669
0.835847 -0.392177 -0.116522
0.144105 -0.096464 -0.420074
-0.662594 0.129994 0.417689
-0.401511 -0.043800 0.113932
0.404116 -0.082806 -0.007140
0.683417 -0.072431 -0.064830
-0.216795 -0.131634 0.177054
0.976242 -0.249261 -0.253838
-0.721573 0.101140 0.477165
0.690979 -0.120643 -0.131961
0.923495 -0.098672 -0.012908
-0.268282 -0.051914 0.186262
0.653504 -0.316785 -0.027570
0.176042 0.036032 0.043624
-0.789556 0.443498 0.181114
0.643702 0.097688 -0.358288
0.759407 -0.243765 0.022517
-0.668170 0.224870 0.101694
0.199985 -0.004696 0.191255
-0.601431 0.371119 0.003205
-0.571634 0.223482 -0.003272
0.619942 -0.377817 -0.096063
0.271953 -0.051391 0.161077
-0.352213 0.190918 -0.086021
0.473521 -0.003016 -0.212847
0.268040 0.369083 -0.123849
0.631809 0.090943 -0.204043
-0.333906 -0.026054 0.193536
-0.411146 0.335737 -0.019621
0.593013 -0.137283 0.059134
-0.400364 -0.053458 0.206872
0.332039 -0.121645 0.164587
-0.719452 0.180628 0.470772
-0.343692 -0.121268 -0.009370
-0.798510 0.235768 0.375883
-0.572801 0.322709 0.153487
-0.750814 0.316829 0.486144
0.716148 -0.072129 0.058059
0.385249 -0.088864 0.101829
-0.751417 0.347702 0.394470
-0.232701 -0.149866 0.115090
0.769503 -0.228596 -0.257959
-0.280184 -0.010875 0.303188
-0.444365 0.212873 0.080492
-0.537067 0.037094 0.374699
-0.357163 0.320941 0.204286
-0.838335 0.665303 0.224435
0.557984 -0.243838 0.097302
0.139806 0.131048 0.020859
0.825913 -0.177344 -0.313549
-0.222318 -0.137233 -0.083451
0.443471 -0.252144 0.018736
-0.451965 0.135208 0.086423
-0.392859 -0.004175 0.015746
-0.190690 -0.097479 0.073971
-0.587910 0.213087 0.087426
-0.814844 0.436297 0.455407
-0.453277 0.044103 0.334366
-0.260583 0.133794 -0.006487
-0.858956 0.577481 0.368086
-0.120096 -0.062636 -0.319896
0.972739 -0.272752 -0.145981
0.483174 -0.222973 0.102539
-0.607333 0.298287 -0.048642
-0.354516 0.025349 -0.030726
-0.515695 0.164699 0.031909
-0.296445 -0.139987 -0.062758
0.597224 -0.189680 0.132310
0.085704 -0.004445 -0.402356
-0.315629 0.112123 0.309851
0.687456 0.246454 -0.223322
-0.767357 0.150905 0.530008
0.623030 -0.202586 -0.229454
-0.488490 0.290798 -0.017097
-0.402202 0.144751 -0.056021
0.487458 -0.155621 0.176544
0.350744 0.202089 0.068869
0.655395 -0.347038 -0.179749
0.292171 -0.081808 0.245579
0.912574 -0.273300 0.006355
-0.620903 0.137292 0.474001
0.446371 -0.048924 -0.085045
-0.585849 0.073317 0.290543
-0.255423 -0.190691 0.051735
-0.357888 -0.013456 0.310034
-0.185459 -0.165620 0.044128
0.870881 -0.174234 0.036210
-0.512219 0.114048 0.311495
-0.827849 0.643794 0.573222
-0.027681 -0.245760 -0.138526
0.769369 -0.142601 0.046737
-0.244762 0.282511 -0.066101
-0.564088 0.294689 0.025060
-0.776019 0.239390 0.459693
-0.441881 0.203933 -0.043808
0.762827 -0.290934 -0.300278
-0.494835 0.223537 -0.008107
-0.428139 0.128285 0.363125
0.447950 0.191228 -0.262090
-0.571211 0.355596 0.084905
0.790451 -0.233392 -0.324850
-0.503605 0.352986 0.048262
-0.375895 0.209318 -0.015757
-0.136123 -0.157574 0.130389
-0.473089 0.321700 0.123601
-0.211884 0.146979 -0.262108
0.819366 -0.145442 -0.026153
-0.742232 0.325748 0.665535
-0.590080 0.082252 0.452459
-0.250529 -0.103102 0.234239
-0.327870 0.098195 -0.237237
-0.387528 -0.144259 0.101270
-0.295847 -0.213863 0.222995
0.959684 -0.187603 -0.757066
-0.363180 -0.113192 0.188258
-0.247759 -0.222162 0.102674
-0.354590 0.304926 0.279604
0.832046 -0.311186 -0.419600
0.420527 -0.095573 0.179384
-0.333634 -0.065115 0.264960
-0.784531 0.403591 0.697862
0.381039 0.173473 -0.192883
-0.361747 0.199246 0.336911
-0.312272 -0.032394 -0.169639
0.423118 0.106635 -0.273170
0.858289 -0.273218 -0.087190
-0.432720 0.270549 -0.050758
-0.721720 0.217042 0.541733
0.779962 -0.342451 -0.257450
-0.732239 0.220024 0.207054
-0.285846 -0.035051 -0.091792
0.912713 -0.106103 -0.619368
0.577579 0.060386 -0.316047
0.434643 -0.023464 0.133681
-0.652438 0.137778 0.327766
-0.311902 -0.143041 0.231897
-0.690699 0.328373 0.133539
0.300805 0.045617 0.133453
0.389104 0.285795 -0.143818
0.769864 -0.336240 -0.121659
0.699562 -0.064976 -0.311617
-0.814196 0.152448 0.440517
-0.183829 -0.031467 0.326716
-0.636998 0.453869 0.110646
-0.515195 0.199049 0.101281
0.188031 -0.197911 -0.397491
-0.449402 0.240768 0.255267
-0.307874 0.051054 -0.101154
-0.269390 0.017302 -0.242156
-0.389413 0.041712 0.233839
0.124135 0.334347 -0.194459
-0.873523 0.799967 0.395941
0.534651 -0.280752 -0.018368
-0.319263 0.041261 0.315355
0.508481 -0.046658 0.180161
0.682334 -0.185026 -0.000472
-0.283372 0.213814 -0.111356
-0.280632 0.000903 0.232739
0.376619 -0.138055 0.239103
-0.720881 0.300527 0.566153
0.819044 -0.230011 -0.021394
-0.532394 0.294388 -0.093536
0.617405 -0.292286 0.105342
0.779607 -0.130888 -0.299164
0.885279 -0.207635 -0.248752
-0.877306 0.226203 0.407183
-0.092268 -0.097883 0.013159
-0.404885 0.274249 0.094923
-0.478185 0.398982 0.225157
-0.685338 0.191467 0.381383
0.758241 -0.112370 -0.360706
0.457486 -0.196061 0.250460
0.960123 -0.192176 -0.007549
0.536467 -0.170444 0.091776
-0.502040 0.020249 0.254111
-0.697863 0.251399 0.436544
0.525836 -0.126502 -0.063721
-0.218218 0.044573 0.167247
-0.143634 -0.062408 0.130813
-0.287674 0.125475 -0.071965
-0.530616 0.371190 -0.061497
0.742970 -0.414183 -0.282989
0.435106 -0.156867 -0.036851
0.610993 -0.108906 0.162122
-0.462361 0.238613 0.368731
-0.285518 -0.136559 0.163872
0.683883 -0.167667 0.074262
0.351578 -0.219187 -0.001811
0.247073 -0.170846 0.248595
-0.476333 0.134282 -0.029923
-0.747271 0.402304 0.582913
0.739623 -0.327193 -0.201351
0.749261 -0.100567 -0.029421
-0.846831 0.747109 0.479784
0.829050 -0.344127 -0.044421
0.607301 -0.103685 -0.076479
0.951655 -0.238348 -0.614789
-0.341214 -0.078804 -0.067765
0.396437 0.057448 -0.185197
-0.370550 -0.065459 0.004865
-0.798047 0.498643 0.672181
-0.428299 0.174373 0.019049
-0.513348 0.143768 0.401458
-0.671759 0.353780 0.497624
0.935170 -0.146088 -0.691032
-0.429738 0.331753 0.053358
-0.124257 -0.207312 0.029046
-0.648287 0.208078 0.500092
-0.377068 0.132644 -0.125023
-0.670559 0.126749 0.524601
0.893079 -0.333460 -0.144332
-0.890542 0.324523 0.513578
-0.179339 -0.058554 0.005341
-0.169671 -0.219972 -0.029413
-0.547513 0.200990 0.473280
-0.811612 0.252679 0.602090
-0.766162 0.134942 0.351395
0.713476 -0.343465 -0.285252
-0.530644 0.430863 0.121500
-0.375685 0.334650 0.131011
-0.834909 0.224532 0.522212
-0.237843 -0.118632 -0.157428
-0.607170 0.279997 0.386972
0.848844 -0.244907 -0.293522
0.553757 -0.235577 0.187447
-0.425687 0.123453 0.270700
0.820944 -0.054885 0.023813
0.476491 -0.295677 0.166432
0.268143 -0.189257 -0.470606
-0.737213 0.593509 0.476541
-0.099798 0.050274 -0.211368
0.735646 -0.358617 0.043717
0.706944 -0.253192 0.075259
-0.492750 0.241015 -0.076647
-0.406542 0.220266 -0.097522
-0.171168 -0.135875 -0.025705
0.787841 -0.288822 -0.362793
0.643886 -0.197648 -0.070700
-0.427006 0.269814 0.169476
0.717448 -0.163785 -0.066462
-0.442459 0.429100 0.074095
0.637746 -0.252871 0.044497
-0.273285 -0.083421 0.299959
-0.410299 0.103368 0.002842
0.807079 -0.387272 -0.359484
-0.247926 -0.046576 -0.220791
0.839987 -0.226612 -0.398829
-0.553849 0.209592 0.335609
-0.610183 0.290646 0.486570
-0.333116 0.355204 0.043289
