ply
format ascii 1.0
element vertex 200
property float x
property float y
property float z
end_header
-0.061271 0.223284 0.044958
0.052720 0.015524 -0.018803
0.060358 -0.344528 0.079297
0.059419 0.025211 -0.003188
-0.038452 0.011551 -0.011102
0.010358 0.039662 0.048452
-0.041546 -0.009047 -0.078381
0.041744 0.003742 0.097039
-0.043002 0.024624 -0.076916
0.087921 0.024674 -0.022671
-0.011328 -0.031701 -0.061552
0.078672 -0.090725 -0.062555
0.066813 0.058466 -0.034461
0.035145 -0.032701 0.034436
0.027827 -0.019072 -0.100922
0.086309 -0.030274 0.029548
0.027323 -0.059833 0.045409
0.054986 0.103773 -0.031972
0.049142 0.043407 -0.033846
-0.022319 -0.144860 0.079340
-0.071603 0.093241 -0.050737
-0.027047 -0.080135 -0.038181
0.079048 -0.112112 -0.158574
-0.032729 0.062290 0.127239
0.068470 0.009092 -0.099790
-0.062586 -0.119718 -0.011650
-0.076575 0.120261 0.134874
-0.106262 -0.059891 0.003200
-0.009575 -0.159586 0.063820
0.105802 -0.083531 -0.111978
0.007858 0.041841 -0.034636
-0.075857 0.005690 0.004363
-0.063494 0.142457 0.061272
-0.111653 0.086071 0.056659
-0.046725 -0.130205 0.028195
-0.033012 -0.048285 0.049297
0.108808 0.052783 -0.039988
0.097691 -0.080773 0.034201
0.018100 -0.001675 0.000008
0.029875 0.085354 -0.037972
0.066365 0.023285 0.026778
-0.060233 0.032363 -0.072034
-0.038054 -0.070577 0.007053
0.114919 0.065777 -0.052914
0.024383 0.137424 0.050498
-0.017377 0.113868 0.124414
0.161165 -0.101071 0.017198
0.141651 -0.050007 -0.033258
-0.186090 0.087364 0.004151
-0.036702 0.041791 -0.286736
-0.062866 0.043134 0.025048
-0.039080 -0.105364 0.037661
0.006038 -0.105155 -0.101462
-0.117935 -0.010884 0.051549
-0.020888 -0.068617 -0.064066
-0.141333 0.006968 -0.156533
0.079516 0.024735 0.016077
0.059898 -0.237170 -0.042310
0.092622 0.052296 -0.033532
-0.221759 0.302635 0.004111
0.061574 0.096254 0.107094
0.030602 0.086936 0.074781
-0.162473 0.038953 0.102531
-0.044117 0.094113 -0.050177
0.038753 0.010567 0.035991
0.113150 -0.204861 0.063350
0.090255 -0.199215 -0.050241
0.097815 0.035031 -0.099736
0.011615 -0.091943 -0.114688
-0.047859 0.083178 -0.136897
0.042452 0.063350 -0.073056
-0.026670 -0.066512 0.011049
-0.031758 -0.078251 -0.003019
-0.045119 -0.085851 -0.009788
-0.033092 -0.097084 -0.043300
-0.085984 0.036888 -0.119668
0.077929 -0.012494 0.042314
-0.061299 0.029173 -0.006849
-0.011260 0.043881 0.055316
0.056657 0.107757 -0.105092
-0.009419 0.128229 0.076608
0.143665 -0.145396 -0.033277
0.060858 -0.167526 -0.032721
0.109947 0.029751 -0.015450
0.070986 0.057804 -0.062567
0.121527 0.103819 -0.019069
-0.142561 0.033058 0.097709
0.100153 -0.040967 -0.092978
-0.019499 -0.038418 0.078213
-0.026010 0.201165 -0.129283
-0.022175 -0.085175 0.153449
-0.003382 -0.003651 -0.093093
-0.020817 0.003496 -0.026816
0.007088 0.074966 -0.056555
0.124287 -0.079514 0.084855
-0.046535 0.193452 0.086079
-0.018104 -0.126871 -0.172585
-0.011459 -0.061874 0.032799
-0.051512 -0.010420 -0.113525
0.018974 -0.006068 -0.003864
0.151114 0.018131 0.037460
0.045112 0.061165 -0.040100
-0.096625 0.085398 0.064604
0.063515 0.126178 0.033102
0.030557 0.067130 -0.060603
0.103596 -0.006565 -0.099320
-0.042110 -0.087790 -0.064323
0.045281 -0.059120 0.162895
-0.048264 -0.067452 -0.039010
-0.069388 -0.030880 -0.153587
0.093947 -0.179294 0.151886
-0.048773 -0.043937 0.055540
-0.008367 -0.063298 -0.008963
-0.026226 -0.101508 -0.009490
0.043581 -0.073083 -0.049235
-0.052206 -0.065659 -0.083319
0.144614 0.051727 0.087138
-0.065884 0.124140 -0.070272
-0.086452 0.153774 0.018372
0.053580 -0.140134 -0.080459
-0.087645 0.074567 -0.142636
-0.065707 -0.021989 -0.036907
-0.086281 0.113366 -0.021846
-0.004396 -0.011444 -0.050483
-0.014883 0.160163 -0.085646
0.055632 0.026361 -0.125041
-0.092714 0.021629 -0.026133
-0.078025 0.035987 0.005641
-0.089753 0.046053 -0.084271
0.118383 0.028944 0.066788
-0.019566 0.056408 -0.012155
0.173469 -0.027934 0.033008
0.087635 0.080338 0.072610
-0.041209 0.021604 -0.006422
0.087014 -0.078246 0.023920
0.003898 0.133962 -0.036969
-0.014357 -0.134545 -0.032212
0.118902 0.080560 -0.144840
-0.117149 0.021280 -0.000300
0.104253 -0.000544 0.068822
0.105512 -0.055767 -0.137378
-0.053554 -0.211933 -0.004960
-0.124469 0.081943 -0.066650
0.104786 0.076951 -0.038990
-0.094526 -0.067179 -0.190621
-0.053676 -0.096407 0.042643
-0.032256 0.202124 -0.024786
-0.073041 0.017403 0.311263
-0.013380 -0.106626 -0.202718
0.094871 -0.000294 -0.056745
0.000083 0.084580 -0.062998
-0.134779 0.302581 -0.020517
0.066672 -0.017351 0.189102
-0.009754 -0.091527 0.034713
0.008149 -0.012654 0.029201
0.095368 -0.016315 0.098652
0.013356 -0.146804 0.113440
0.026483 -0.022374 0.035712
0.026798 0.096371 -0.007538
-0.018326 -0.101754 -0.001444
0.174848 -0.129498 -0.018025
-0.079904 0.036023 0.159581
-0.159003 0.138577 0.111439
0.089836 -0.014207 -0.147846
0.032035 0.066744 0.187087
-0.084634 0.075888 -0.015603
-0.029044 -0.033651 -0.031459
0.062454 -0.055182 -0.083511
-0.116974 -0.036899 -0.037029
0.109734 -0.017686 0.122787
0.046816 0.077028 0.015357
-0.039982 -0.110524 -0.196945
-0.023978 -0.055166 -0.279535
-0.013249 -0.030125 0.086609
-0.154329 0.011516 -0.017429
0.005536 -0.093784 0.141280
0.100739 0.081450 0.025177
0.031324 -0.042559 0.025720
0.084257 -0.114683 0.098831
0.058684 -0.005501 -0.281986
-0.077072 -0.038459 -0.038204
-0.014796 0.088103 -0.217150
0.138292 0.072143 0.047350
0.035129 -0.056533 0.167599
0.122041 -0.064344 -0.065757
0.028871 -0.076919 0.057153
-0.085366 0.122048 0.087542
-0.068170 0.139100 0.002297
-0.084670 -0.034913 0.099664
-0.171783 0.033428 0.055953
0.133601 0.052005 0.023448
-0.001505 -0.010152 0.121280
-0.010567 0.045960 -0.064422
-0.159341 0.122448 -0.045413
0.088393 -0.093155 0.016950
-0.018203 0.027747 -0.021465
-0.138220 0.080978 0.142868
0.189381 -0.105432 -0.112569
-0.034991 -0.019173 -0.063112
0.021993 -0.048699 -0.158189
